# .PCD v0.7 - Point Cloud Data file format
VERSION 0.7
FIELDS x y z intensity
SIZE 4 4 4 4
TYPE F F F F
COUNT 1 1 1 1
WIDTH 1364
HEIGHT 1
VIEWPOINT 0 0 0 1 0 0 0
POINTS 1364
DATA ascii
-1.9054313 -0.82646787 7.9532814 48
-1.8997297 -0.82005918 7.8622789 52
-1.904404 -0.81545812 7.7892151 50
-1.897985 -0.80597514 7.6986332 52
-1.8989649 -0.80136818 7.6263843 51
-1.8996218 -0.79381281 7.554482 51
-1.9024048 -0.79014778 7.4919572 48
-1.8851444 -0.77545798 7.3526726 55
-1.8921796 -0.77374125 7.3095202 53
-1.8867146 -0.76578087 7.2079115 57
-1.8879224 -0.76303214 7.1559162 58
-1.8865578 -0.75539482 7.084291 60
-1.8874538 -0.75147957 7.0220294 53
-1.8802603 -0.74442703 6.9310064 52
-1.8805366 -0.74041474 6.8688402 53
-1.8805362 -0.73374838 6.8069963 57
-1.8829304 -0.73070908 6.7544899 55
-1.8824002 -0.72402632 6.6927166 57
-1.8680182 -0.71469665 6.5828657 60
-1.8750374 -0.71362823 6.5496159 65
-1.8708762 -0.70587128 6.4784226 59
-1.8719586 -0.70266551 6.4261131 60
-1.8759508 -0.69914353 6.3939037 56
-1.8734306 -0.69371933 6.3218598 60
-1.8685576 -0.68705177 6.2610979 61
-1.8625009 -0.68288261 6.1793904 63
-1.8652338 -0.68055773 6.1367946 60
-1.8677806 -0.67586523 6.094481 60
-1.8619417 -0.67146057 6.0336399 61
-1.8581805 -0.66464496 5.9723964 57
-1.8630743 -0.66328025 5.9394121 52
-1.8648283 -0.66082907 5.8969588 52
-1.8611209 -0.65512067 5.8460193 52
-1.85946 -0.65155905 5.7941589 48
-1.8584104 -0.64690351 5.752758 51
-1.8616154 -0.64428115 5.7097187 51
-1.8571278 -0.64071965 5.65868 52
-1.8608599 -0.63703072 5.6260991 46
-1.8571663 -0.63219297 5.5642853 48
-1.8584032 -0.62857729 5.5324616 46
-1.8552713 -0.62484479 5.4808698 46
-1.8615403 -0.62639993 5.4573154 43
-1.854787 -0.61943495 5.3966351 45
-1.8587004 -0.61893231 5.3740635 40
-1.8633912 -0.615116 5.3409276 40
-1.8559772 -0.61016768 5.2801466 41
-1.851611 -0.60626662 5.2288032 41
-1.8583646 -0.60477078 5.2159023 37
-1.8637254 -0.60409838 5.1926961 35
-1.8642191 -0.60114342 5.1500893 32
-2.7942486 -4.3355947 47.370007 91
-2.7294111 -4.0918794 44.519112 84
-2.6821017 -3.8670325 41.896515 115
-2.6332386 -3.6637781 39.694401 162
-2.5871727 -3.4924381 37.680161 197
-2.5601554 -3.3612435 36.26469 248
-2.528331 -3.2099819 34.488785 254
-2.4976363 -3.07359 33.023361 254
-2.449568 -2.9512744 31.577932 254
-2.4167683 -2.813369 30.102375 254
-2.3849828 -2.7331607 29.004044 19
-2.3856521 -2.6573148 28.083862 241
-2.3837218 -2.5958767 27.434555 29
-2.3044796 -2.3915181 25.17185 254
-2.2957308 -2.3230457 24.351961 20
-2.2830887 -2.2544782 23.633181 21
-2.2622356 -2.1899719 22.864222 24
-2.2498808 -2.1363273 22.214388 24
-2.2364509 -2.0835361 21.665443 24
-2.2214522 -2.0243554 20.965675 24
-2.2066803 -1.9674811 20.376646 25
-2.2023323 -1.929722 19.905785 25
-2.1857657 -1.8755318 19.346794 25
-2.1707528 -1.8382692 18.886995 26
-2.1645575 -1.8105621 18.4555 26
-2.1550286 -1.761515 17.955551 26
-2.1438265 -1.7310175 17.575315 26
-2.1382635 -1.6951954 17.144203 26
-2.1262667 -1.6596435 16.784653 26
-2.1255896 -1.6352199 16.473129 26
-2.1082096 -1.5975928 16.094074 26
-2.1028078 -1.5668283 15.722813 27
-2.0935307 -1.5329343 15.382693 29
-2.0854218 -1.5067939 15.061838 28
-2.0813935 -1.4787097 14.78111 30
-2.0704365 -1.452239 14.460523 30
-2.0723422 -1.4300026 14.239104 30
-2.056215 -1.4052888 13.939252 26
-2.0559983 -1.3829843 13.718012 30
-2.0494614 -1.3588158 13.426683 32
-2.0403655 -1.3456497 13.195551 32
-2.0319297 -1.3281729 12.97487 29
-2.03092 -1.30448 12.743413 31
-2.0221984 -1.2877728 12.532755 32
-2.0158172 -1.265099 12.312092 33
-2.008426 -1.2470722 12.091047 34
-2.0033312 -1.2263579 11.890211 32
-2.0040205 -1.2141962 11.728224 36
-1.99718 -1.1934218 11.527558 37
-1.9911429 -1.1780193 11.336337 34
-1.9807467 -1.1604364 11.125628 38
-1.9757545 -1.1447229 10.974977 39
-1.9785354 -1.1330088 10.822444 35
-1.9722804 -1.1172509 10.671924 38
-1.9754 -1.1064038 10.529319 42
-1.9697549 -1.0995967 10.387871 37
-1.9637755 -1.0825731 10.227048 37
-1.9571402 -1.0672648 10.045628 42
-1.9553784 -1.0554615 9.9345303 41
-1.9472668 -1.0421504 9.7735596 41
-1.9480393 -1.0317761 9.6411972 39
-1.9348118 -1.0146911 9.4815512 47
-1.9386487 -1.0084342 9.3890524 46
-1.9441031 -1.0031595 9.3063278 44
-1.9409623 -0.9900915 9.1850958 42
-1.931035 -0.97735018 9.0343781 45
-1.9337741 -0.96958888 8.9626341 42
-1.9282368 -0.95769584 8.8210611 49
-1.9250411 -0.94561821 8.7098179 45
-1.9235092 -0.93790215 8.6079826 42
-1.921518 -0.93337601 8.5058498 45
-1.9156581 -0.91898268 8.3746834 51
-1.9148819 -0.91210824 8.2827396 50
-1.9173065 -0.90845931 8.2206287 48
-1.9098039 -0.89398903 8.0896873 48
-1.9046787 -0.88703263 7.9986415 46
-1.909238 -0.88315874 7.9359269 51
-1.9064751 -0.87299448 7.844593 49
-1.9032996 -0.86580956 7.7529817 49
-1.8997115 -0.85562277 7.6617627 54
-1.905371 -0.8526684 7.6088514 51
-1.8986108 -0.84425646 7.5077705 51
-1.8963134 -0.83510089 7.426352 49
-1.8886855 -0.82659531 7.3254151 57
-1.8953161 -0.82293075 7.2929397 57
-1.8844489 -0.81601334 7.1821918 57
-1.8885546 -0.81161982 7.1191802 59
-1.8844695 -0.8023684 7.0380311 59
-1.8876909 -0.80026418 6.9957342 54
-1.8752023 -0.78915858 6.8752995 54
-1.8805709 -0.78426462 6.8326631 61
-1.8724533 -0.77646136 6.7418561 60
-1.8746541 -0.77302063 6.6894102 59
-1.8739192 -0.76589233 6.6277251 60
-1.8781732 -0.76231176 6.5746288 64
-1.8771193 -0.75635856 6.5232849 62
-1.8728316 -0.75058663 6.4518776 54
-1.8682244 -0.74476647 6.3805299 56
-1.8689271 -0.73870361 6.3285875 56
-1.8722361 -0.73616678 6.2859197 61
-1.8724998 -0.73009056 6.2340369 61
-1.858129 -0.72315359 6.1340771 65
-1.8583723 -0.72058952 6.0922332 64
-1.8631346 -0.71782774 6.048996 63
-1.8630385 -0.71290052 6.0074754 59
-1.8591626 -0.70792121 5.9460292 55
-1.8639745 -0.7040289 5.9133363 52
-1.8603626 -0.70021528 5.862154 50
-1.8618327 -0.69741613 5.819767 49
-1.8622961 -0.69115376 5.767509 52
-1.8611461 -0.68839419 5.725893 49
-1.8527594 -0.68210417 5.6552734 52
-1.8596315 -0.6793161 5.6321578 48
-1.85484 -0.67534238 5.5812078 46
-1.8604492 -0.67345017 5.547729 47
-1.8542203 -0.66607749 5.4869947 45
-1.8637313 -0.66861778 5.4728289 46
-1.8635163 -0.66558695 5.4307184 42
-1.8501341 -0.65585852 5.3513417 44
-1.8527318 -0.65392953 5.3187084 40
-1.8572316 -0.65189052 5.285388 41
-1.8541952 -0.64683312 5.2443848 40
-1.8563507 -0.64484549 5.2118168 36
-1.8617206 -0.64399558 5.1886187 34
-1.8616251 -0.64007604 5.1570392 31
-2.7385519 -4.3453426 44.645512 114
-2.6975832 -4.1405444 42.372803 95
-2.6395762 -3.9089632 40.002888 131
-2.5909739 -3.7210867 37.929943 199
-2.5629601 -3.5737078 36.284466 246
-2.5309794 -3.4167047 34.690384 225
-2.5058968 -3.274296 33.114296 254
-2.4580386 -3.143708 31.669567 254
-2.4207525 -2.9914069 30.135292 254
-2.3898785 -2.8947713 29.04846 19
-2.3890946 -2.8250098 28.238659 254
-2.375104 -2.7332156 27.321089 62
-2.3090179 -2.5412714 25.20722 230
-2.3030992 -2.4718206 24.518326 21
-2.2781744 -2.4045968 23.76022 21
-2.2621238 -2.339741 23.031197 22
-2.2506812 -2.2738395 22.382498 22
-2.2349741 -2.2234428 21.803259 24
-2.2241902 -2.1715171 21.213465 25
-2.2043324 -2.1051719 20.56534 25
-2.2076452 -2.063674 20.083916 25
-2.1932647 -2.0219936 19.604336 26
-2.1776464 -1.966423 19.065548 25
-2.1710653 -1.9282048 18.62501 26
-2.1624613 -1.8896627 18.184637 26
-2.1446502 -1.837836 17.685898 26
-2.1379666 -1.8039452 17.295238 26
-2.1294904 -1.7697682 16.904736 26
-2.1293497 -1.7435988 16.593315 27
-2.1163638 -1.7068961 16.244026 27
-2.1142969 -1.6761311 15.8926 27
-2.1056929 -1.6462388 15.55199 29
-2.0923669 -1.6124356 15.23265 28
-2.0851793 -1.5810552 14.88168 27
-2.0761225 -1.5537053 14.571057 29
-2.0684931 -1.5227605 14.280849 30
-2.0725672 -1.506669 14.078726 28
-2.053653 -1.4745845 13.729156 31
-2.0495672 -1.4487337 13.48847 30
-2.0413451 -1.4258544 13.227677 32
-2.0350082 -1.4049131 12.986661 31
-2.0275695 -1.3837976 12.745763 35
-2.0221984 -1.3598448 12.525141 32
-2.0206399 -1.343828 12.333532 33
-2.0102701 -1.3256116 12.123166 35
-2.0082901 -1.3025078 11.911874 34
-2.0056961 -1.2872118 11.730352 36
-1.9988781 -1.2696276 11.529328 36
-1.9877009 -1.245399 11.309312 33
-1.9790032 -1.2275985 11.108513 38
-1.9835185 -1.2183347 10.986093 37
-1.9785354 -1.2035403 10.814827 36
-1.9768792 -1.1844584 10.643359 42
-1.9698975 -1.1717519 10.492573 39
-1.9681904 -1.1599478 10.350882 39
-1.9620812 -1.1419393 10.190183 36
-1.9590422 -1.1299806 10.048646 44
-1.9553604 -1.1179212 9.9071903 44
-1.9490889 -1.104658 9.7560692 39
-1.9480393 -1.0909139 9.6346846 40
-1.9404609 -1.0775058 9.4837332 49
-1.9346266 -1.0638138 9.3632221 48
-1.9400358 -1.058025 9.2805405 46
-1.9424453 -1.0487547 9.1679831 42
-1.9393494 -1.0406896 9.0666857 45
-1.9372312 -1.0279144 8.9553852 43
-1.9324841 -1.0174193 8.8340454 49
-1.922895 -1.0045972 8.6933804 44
-1.9213406 -0.99288017 8.5919867 40
-1.9204234 -0.98675805 8.5103874 44
-1.9146405 -0.97477257 8.3789301 48
-1.9139221 -0.96730226 8.2870283 51
-1.91188 -0.95783877 8.2059526 51
-1.9089633 -0.9479273 8.0940838 46
-1.9084904 -0.94265229 8.0224104 49
-1.9038539 -0.933824 7.9210677 48
-1.9081362 -0.92647964 7.8587694 48
-1.904404 -0.91993093 7.7775683 51
-1.8967549 -0.90857619 7.6563964 55
-1.9024346 -0.90234125 7.6038556 51
-1.8928156 -0.89335632 7.5035505 50
-1.8983591 -0.88872963 7.4403825 51
-1.8879796 -0.87680471 7.340548 53
-1.8925015 -0.87333971 7.2878056 56
-1.8867146 -0.8652159 7.1966524 56
-1.8881407 -0.86050469 7.134378 58
-1.8764724 -0.84725022 7.0244865 60
-1.8875763 -0.84710234 7.0006771 51
-1.8829335 -0.83995438 6.9193525 53
-1.87791 -0.83400476 6.8483858 56
-1.8752389 -0.8253203 6.7770734 64
-1.8695765 -0.8180446 6.695931 63
-1.8743211 -0.81540072 6.6530929 63
-1.8680182 -0.80802804 6.5720625 62
-1.8777747 -0.80515391 6.548686 62
-1.8738884 -0.80016273 6.4875484 56
-1.8691771 -0.79259437 6.4059639 52
-1.8703508 -0.78743768 6.3642855 54
-1.8709915 -0.78343779 6.3120928 59
-1.8657135 -0.77703291 6.2409081 63
-1.8629827 -0.77176809 6.1792932 64
-1.8633821 -0.76893103 6.1374383 63
-1.8659836 -0.76363826 6.0951915 62
-1.8625419 -0.75828463 6.0337005 63
-1.8588264 -0.75288999 5.9722624 58
-1.8607823 -0.74757624 5.9301119 55
-1.8715359 -0.74811417 5.9160943 52
-1.8611209 -0.74024111 5.8358521 51
-1.8602585 -0.73721671 5.7942085 49
-1.8584104 -0.73066574 5.7427201 49
-1.8594117 -0.72750682 5.7004313 55
-1.8509271 -0.72069734 5.6298814 49
-1.8608599 -0.7189483 5.616219 48
-1.8613068 -0.71571887 5.5740185 45
-1.8584032 -0.71124917 5.5224419 48
-1.8605782 -0.7078684 5.4796052 46
-1.8636469 -0.70576721 5.4468994 45
-1.8568699 -0.69998467 5.3860612 43
-1.8530787 -0.69333953 5.3349304 40
-1.8568413 -0.69248223 5.3123918 36
-1.8613156 -0.69019943 5.2790837 40
-1.8615661 -0.68807906 5.2472105 38
-1.8490169 -0.67762393 5.1674809 38
-1.8623685 -0.68037009 5.1730342 32
-1.8709857 -0.68056101 5.1591811 30
-2.776078 -4.7858372 46.401314 79
-2.7384014 -4.5445285 44.061695 118
-2.7046368 -4.3429008 41.949162 113
-2.6352663 -4.0843434 39.451691 124
-2.599627 -3.908072 37.608227 199
-2.5703666 -3.7521572 35.973629 232
-2.5326991 -3.6127799 34.50909 234
-2.504395 -3.462652 33.075077 254
-2.4526482 -3.3185382 31.581551 254
-2.4151747 -3.1689386 30.046978 248
-2.3936956 -3.0634158 28.940037 20
-2.3739951 -2.9685221 28.043573 254
-2.3648589 -2.8754466 27.065136 153
-2.3577673 -2.8145792 26.395864 21
-2.3108332 -2.6883435 25.211992 254
-2.2947242 -2.6126804 24.413597 21
-2.2873325 -2.5502479 23.744146 21
-2.2650414 -2.4753754 23.047043 23
-2.2523141 -2.4035757 22.298016 21
-2.2331953 -2.3463912 21.689447 21
-2.2115436 -2.2720237 21.002014 23
-2.2080038 -2.2269347 20.511656 24
-2.2054713 -2.1847141 20.051109 26
-2.1877344 -2.1293497 19.54298 26
-2.1827314 -2.0811193 19.032539 25
-2.1676099 -2.0391989 18.583206 26
-2.1624613 -2.0012062 18.172701 26
-2.1494401 -1.9574599 17.713011 26
-2.1452885 -1.916574 17.343037 26
-2.1319766 -1.8756478 16.913282 26
-2.1280837 -1.8442836 16.572447 28
-2.1161835 -1.8071675 16.18247 27
-2.1103621 -1.7703139 15.85246 27
-2.1036608 -1.7349211 15.481701 28
-2.0959487 -1.7048863 15.161146 28
-2.0881507 -1.6700348 14.851219 29
-2.0775254 -1.6441927 14.571088 29
-2.0713444 -1.6180576 14.290288 29
-2.0620234 -1.5806917 13.960282 26
-2.0545235 -1.5553585 13.689584 31
-2.0495672 -1.5366392 13.478739 31
-2.0449266 -1.5108479 13.207502 31
-2.0323019 -1.4838256 12.927371 31
-2.0275695 -1.4619782 12.737033 34
-2.0238526 -1.439124 12.495622 31
-2.0190322 -1.4230734 12.314706 36
-2.0100563 -1.3964866 12.084634 36
-2.0115957 -1.3824098 11.922724 33
-2.0040205 -1.3625199 11.711919 35
-2.0005765 -1.3414851 11.53111 37
-1.989422 -1.3202442 11.310736 34
-1.9781967 -1.3023721 11.120587 38
-1.9792795 -1.2858095 10.979164 38
-1.9761474 -1.2711129 10.817763 34
-1.9740882 -1.257453 10.666217 37
-1.9709324 -1.2460833 10.535027 38
-1.9675981 -1.2322143 10.383632 38
-1.9635751 -1.2182376 10.23232 36
-1.9550748 -1.1979663 10.062056 41
-1.9496286 -1.1862446 9.9311562 43
-1.9494069 -1.175508 9.8093271 44
-1.9486331 -1.1609696 9.6880074 39
-1.9492884 -1.1512766 9.5760345 41
-1.9357824 -1.1357268 9.4162245 48
-1.9430015 -1.1245468 9.3235312 44
-1.9364669 -1.1135621 9.2027702 40
-1.9406335 -1.1046712 9.100029 40
-1.9365976 -1.0934333 8.9786692 41
-1.926477 -1.0776215 8.8488321 48
-1.9247366 -1.0661682 8.7268944 46
-1.9264898 -1.0607489 8.6549606 40
-1.9215049 -1.0479521 8.5234737 44
-1.9191998 -1.0387371 8.4218588 46
-1.910996 -1.0251571 8.3117533 48
-1.9122841 -1.0182297 8.2296104 50
-1.9041253 -1.0064461 8.1088514 48
-1.9114621 -0.99990904 8.0561838 46
-1.9016082 -0.98932081 7.9459443 48
-1.9083629 -0.98579741 7.8929558 51
-1.9078178 -0.97861046 7.8110533 51
-1.8973939 -0.96357238 7.6910224 51
-1.900824 -0.95871186 7.628509 53
-1.8991311 -0.95137978 7.5467725 49
-1.901508 -0.94485801 7.495039 48
-1.8942527 -0.93502188 7.3941627 53
-1.8918499 -0.92624545 7.3022585 59
-1.8884054 -0.92003351 7.2310696 55
-1.8902299 -0.91358888 7.1584907 57
-1.8861976 -0.90727812 7.0873976 58
-1.8897605 -0.90058982 7.0351505 53
-1.8827037 -0.8916626 6.9442687 56
-1.8830942 -0.88637316 6.8821797 55
-1.8779334 -0.87989748 6.8112807 60
-1.8777192 -0.87060416 6.7393408 61
-1.877336 -0.86653483 6.687655 64
-1.8764778 -0.85976225 6.6154771 62
-1.8699836 -0.84928495 6.5348582 63
-1.8688742 -0.84511185 6.4832935 62
-1.875602 -0.84330148 6.4501057 56
-1.8710169 -0.83647239 6.3788409 55
-1.8713706 -0.82833129 6.3167586 58
-1.8665626 -0.82518077 6.2555108 64
-1.8667822 -0.81835085 6.2037349 61
-1.8552482 -0.80886042 6.1137061 64
-1.8607248 -0.80686486 6.0806885 65
-1.8637195 -0.80493957 6.0483899 61
-1.8624115 -0.79900873 5.9862685 62
-1.8644277 -0.79338628 5.9441442 55
-1.8662581 -0.79003012 5.9017401 54
-1.8618776 -0.78410721 5.8404613 51
-1.8572239 -0.7781443 5.7792397 52
-1.8561902 -0.77258486 5.7379498 51
-1.854133 -0.7678448 5.6862555 52
-1.8580406 -0.76562274 5.653451 48
-1.8586884 -0.75994664 5.6115379 47
-1.8654324 -0.75896555 5.5881782 45
-1.8541319 -0.75166076 5.5185237 46
-1.8595239 -0.75135529 5.4848189 48
-1.8562278 -0.74434471 5.4336419 42
-1.8570682 -0.74207765 5.4016862 40
-1.8587004 -0.73830312 5.3589687 39
-1.8527318 -0.73136592 5.3086147 42
-1.8638175 -0.73142606 5.2940345 38
-1.8575064 -0.72648948 5.2434711 38
-1.8630162 -0.72531509 5.2202668 36
-1.8617206 -0.72152328 5.1784072 34
-1.873746 -0.72093028 5.1741505 32
-2.7912416 -5.1133437 46.92981 29
-2.7312255 -4.8153253 44.194626 90
-2.6963167 -4.570035 41.794518 118
-2.6444438 -4.3514581 39.795555 125
-2.6083176 -4.1614532 37.923298 162
-2.5783525 -3.9929855 36.2598 216
-2.5360484 -3.8232195 34.718178 246
-2.5133078 -3.6847258 33.343002 254
-2.4603488 -3.5111423 31.661034 254
-2.4133081 -3.3833206 30.296293 254
-2.4013016 -3.2553828 29.150661 20
-2.3807061 -3.149416 28.104053 20
-2.3611419 -3.0639298 27.246792 20
-2.3519917 -2.9720385 26.429626 151
-2.3209934 -2.8676569 25.413616 158
-2.302916 -2.7838137 24.585962 21
-2.2832029 -2.7037885 23.879196 22
-2.2716515 -2.6348181 23.190514 23
-2.2586448 -2.5487499 22.432976 23
-2.2410612 -2.4892454 21.834589 23
-2.2221155 -2.4212899 21.166388 21
-2.2122602 -2.3572853 20.537119 22
-2.2043841 -2.2988863 20.028336 23
-2.1877344 -2.2492232 19.529547 24
-2.1799042 -2.2098291 19.058876 25
-2.1713126 -2.1496568 18.539915 26
-2.1612234 -2.1045454 18.090208 26
-2.151469 -2.0614083 17.660404 27
-2.1421869 -2.0136521 17.251268 27
-2.1319766 -1.9793904 16.901457 26
-2.1281295 -1.9400524 16.51075 26
-2.1185501 -1.9028491 16.140724 27
-2.1151638 -1.8662938 15.830648 26
-2.1023226 -1.8287184 15.460923 28
-2.0928123 -1.800311 15.170874 28
-2.0895345 -1.7622958 14.850528 30
-2.0817337 -1.7370797 14.590221 29
-2.0784721 -1.7115804 14.329231 29
-2.0638771 -1.672282 14.000228 27
-2.0639505 -1.6511896 13.778773 31
-2.0525548 -1.6268475 13.488068 30
-2.0413451 -1.5931365 13.208574 31
-2.0411656 -1.5738945 13.007079 29
-2.0306935 -1.5473651 12.74684 32
-2.0252719 -1.5290999 12.556123 32
-2.0142782 -1.4987016 12.30651 34
-2.0086439 -1.4777277 12.095626 34
-2.0069926 -1.4602028 11.914221 33
-1.9978267 -1.433251 11.694314 36
-1.9995134 -1.419131 11.542444 36
-1.9953579 -1.4012839 11.361309 32
-1.9868959 -1.3766093 11.161254 39
-1.9820751 -1.3622878 11.01038 38
-1.9826584 -1.3489763 10.868588 34
-1.9699693 -1.3229691 10.659052 36
-1.9691057 -1.3135201 10.516924 38
-1.967279 -1.30242 10.39563 40
-1.9617032 -1.2836952 10.214414 36
-1.9587513 -1.2685304 10.093747 40
-1.9534552 -1.2534195 9.9426889 44
-1.9494069 -1.2394338 9.8014555 43
-1.9427577 -1.2204139 9.6510458 40
-1.9453263 -1.211215 9.5488777 44
-1.9394195 -1.1969968 9.4078817 46
-1.9409755 -1.1876394 9.3058329 47
-1.9420705 -1.1746796 9.2042866 42
-1.9427048 -1.1652166 9.1023378 41
-1.9352187 -1.1532853 8.9817848 42
-1.9307016 -1.141175 8.86057 45
-1.9299043 -1.1281253 8.7592468 45
-1.9308045 -1.1229771 8.6667995 40
-1.9225709 -1.1093738 8.5361233 42
-1.9181477 -1.0949723 8.4253101 45
-1.91767 -1.0862881 8.3334818 50
-1.9145312 -1.0762765 8.2320471 51
-1.9086643 -1.0618144 8.1214314 46
-1.913754 -1.0567615 8.0587406 46
-1.9093074 -1.046589 7.9574933 51
-1.897393 -1.0325326 7.8273993 51
-1.9067667 -1.025509 7.7741547 51
-1.9003663 -1.016544 7.6834655 52
-1.9037722 -1.0112516 7.620985 52
-1.8899176 -0.99695623 7.4912205 48
-1.8950597 -0.98998475 7.4388361 51
-1.8851444 -0.97815603 7.3284612 55
-1.8921796 -0.97804242 7.2849975 56
-1.8912009 -0.97260034 7.2234554 55
-1.8904599 -0.96159357 7.1417084 57
-1.8838254 -0.9534955 7.0610871 61
-1.8821671 -0.94654256 6.9893856 52
-1.8801875 -0.93954104 6.9177351 54
-1.8831323 -0.93246287 6.8656197 55
-1.8752655 -0.92279458 6.7749486 62
-1.8750557 -0.91838163 6.7232685 60
-1.8772364 -0.91383523 6.6709056 61
-1.873613 -0.90269709 6.5895991 63
-1.8781732 -0.90080553 6.5570893 61
-1.8711326 -0.8908211 6.4660192 59
-1.8725482 -0.88508487 6.4243822 55
-1.8678914 -0.87775832 6.3531818 54
-1.8681695 -0.87401611 6.290504 62
-1.8689822 -0.8706398 6.2486229 62
-1.8715811 -0.8657099 6.1958556 67
-1.8547286 -0.85196197 6.0974622 63
-1.8596087 -0.84829611 6.0542836 65
-1.8537564 -0.84213781 5.9936047 59
-1.8640889 -0.8410731 5.9694109 57
-1.8607823 -0.83618194 5.9182677 50
-1.8618301 -0.82880694 5.8660693 51
-1.8641373 -0.82654172 5.8338857 49
-1.85946 -0.82013291 5.7727108 56
-1.8628498 -0.81626946 5.7297378 55
-1.8492869 -0.80503052 5.6508465 56
-1.8562077 -0.80390495 5.6274891 48
-1.8630311 -0.80276138 5.6041317 45
-1.8697572 -0.80159986 5.5807743 43
-1.8510295 -0.78960395 5.4823179 47
-1.8552713 -0.78848803 5.4597301 44
-1.8615403 -0.78725326 5.4364424 42
-1.8580184 -0.78192109 5.3850598 38
-1.8530787 -0.77509153 5.323667 40
-1.8502916 -0.76913297 5.2827411 41
-1.8658669 -0.77190554 5.2875609 37
-1.851611 -0.76237929 5.2083311 39
-1.855028 -0.75913292 5.1861529 36
-1.8650751 -0.76060385 5.1823335 35
-1.87037 -0.75922346 5.1591563 30
-2.5530059 -4.7988076 41.808125 61
-2.7114952 -4.8962522 42.513165 94
-2.6691141 -4.6775818 40.614491 114
-2.6249173 -4.4576454 38.574677 172
-2.5970979 -4.2645545 36.903744 220
-2.5478659 -4.0631876 35.043339 243
-2.5127196 -3.91587 33.659954 254
-2.4877596 -3.7596438 32.31707 19
-2.4361944 -3.5678353 30.566198 20
-2.4087315 -3.4386148 29.361361 20
-2.3797953 -3.3295448 28.335976 21
-2.3731537 -3.2265022 27.368477 21
-2.3558249 -3.1326599 26.572472 190
-2.3255851 -3.0228808 25.556984 147
-2.3035789 -2.9287844 24.680304 21
-2.2983358 -2.8599372 24.021414 22
-2.2842448 -2.7835214 23.303448 21
-2.2630591 -2.7039213 22.637039 22
-2.2522209 -2.6278262 21.928566 23
-2.2335267 -2.5560668 21.260733 23
-2.2202368 -2.493346 20.672138 23
-2.2061906 -2.4333084 20.174372 23
-2.1912174 -2.3735676 19.615789 23
-2.1844199 -2.3169119 19.086191 25
-2.1684761 -2.2684798 18.627501 23
-2.1648104 -2.2195115 18.167341 26
-2.1557357 -2.1812811 17.797709 27
-2.1422462 -2.1263361 17.349398 27
-2.1366045 -2.087579 16.979239 26
-2.1330483 -2.0521963 16.638769 27
-2.1240737 -2.0129128 16.268909 27
-2.1199384 -1.9733516 15.949165 26
-2.1076787 -1.9336934 15.579606 27
-2.1045475 -1.903563 15.288879 28
-2.0929139 -1.8720944 14.989244 30
-2.0844152 -1.8390787 14.679121 28
-2.0787468 -1.8040216 14.399303 29
-2.0703511 -1.7731584 14.109092 28
-2.0576966 -1.7396129 13.799392 31
-2.054024 -1.7145314 13.558532 28
-2.0447214 -1.6855451 13.288362 31
-2.04337 -1.6588348 13.077786 29
-2.034528 -1.6359209 12.857639 31
-2.0267298 -1.6064012 12.58707 32
-2.0207303 -1.5869153 12.396529 31
-2.012248 -1.5575013 12.166757 34
-2.0109181 -1.53896 11.98542 33
-2.0087607 -1.5202889 11.804173 34
-1.999028 -1.4964377 11.583914 37
-1.9985445 -1.4800278 11.42241 33
-1.9895129 -1.4610627 11.242208 37
-1.9848399 -1.4349934 11.041617 40
-1.983791 -1.4195535 10.890136 37
-1.9778987 -1.4041045 10.739484 36
-1.9741553 -1.3845161 10.558159 40
-1.9706278 -1.371407 10.427171 37
-1.9705856 -1.3541572 10.296016 34
-1.96413 -1.3396274 10.155416 38
-1.9572499 -1.3196511 9.9744768 41
-1.9552785 -1.3061023 9.8430367 42
-1.9546643 -1.2937549 9.7213936 38
-1.9475666 -1.2774311 9.5706663 41
-1.9421251 -1.2613783 9.4503956 44
-1.9317609 -1.2436141 9.2901354 46
-1.9431174 -1.2400692 9.2367163 43
-1.939793 -1.2273431 9.1154175 43
-1.9380041 -1.2123888 9.0043516 42
-1.929384 -1.1969281 8.863822 44
-1.9307796 -1.1879277 8.7718019 46
-1.9296064 -1.1775483 8.6701555 40
-1.9257979 -1.1657809 8.5588989 42
-1.9170879 -1.1512965 8.4283867 45
-1.9211098 -1.1446637 8.3559303 47
-1.9135907 -1.1281893 8.2356691 50
-1.9145863 -1.1201404 8.1536589 47
-1.9143729 -1.1134632 8.0820646 46
-1.90854 -1.0998763 7.9608631 46
-1.9053123 -1.0917476 7.8797374 55
-1.9000955 -1.077804 7.7790985 50
-1.9092823 -1.0733976 7.7255006 51
-1.895479 -1.0597755 7.6060591 55
-1.9010512 -1.0553724 7.5532637 49
-1.8966261 -1.0455487 7.4620733 47
-1.8971107 -1.0369109 7.3798299 53
-1.8939979 -1.0297717 7.3086762 60
-1.8934212 -1.0197066 7.2372408 54
-1.8874623 -1.0096886 7.1463008 55
-1.8887498 -1.0036793 7.0841551 60
-1.8818985 -0.9950102 7.0036287 55
-1.8826118 -0.98890984 6.9415722 51
-1.8778176 -0.98003697 6.8604469 52
-1.8805709 -0.97260284 6.8084064 60
-1.8777727 -0.96502936 6.7369347 63
-1.8826998 -0.96151727 6.6941261 66
-1.8767613 -0.9539597 6.6234608 62
-1.8756349 -0.94614959 6.5514269 63
-1.8746006 -0.93876153 6.5002689 60
-1.8672906 -0.92813611 6.4093208 56
-1.8741274 -0.92731786 6.3864012 53
-1.8664836 -0.91808206 6.305788 54
-1.8698088 -0.91433597 6.2632103 62
-1.8700926 -0.909172 6.2111721 63
-1.8643917 -0.90119147 6.1402192 58
-1.8670698 -0.89734566 6.0977392 62
-1.870132 -0.89264506 6.0657973 56
-1.8665974 -0.88596922 6.004446 53
-1.8657506 -0.88065171 5.9525981 50
-1.8676577 -0.87670028 5.910233 49
-1.8603626 -0.8685106 5.8395925 49
-1.8648601 -0.86589932 5.8067303 51
-1.8661668 -0.86185622 5.7644625 52
-1.8672884 -0.85559011 5.7225518 52
-1.8651319 -0.85009652 5.6709361 49
-1.8596315 -0.84315717 5.6099696 49
-1.8695432 -0.84325385 5.5960107 42
-1.861461 -0.83635741 5.5358348 44
-1.861631 -0.83215636 5.4937639 45
-1.8669335 -0.82924271 5.4603863 44
-1.8581977 -0.82224602 5.400362 41
-1.8642775 -0.82081461 5.3771029 37
-1.8572046 -0.81160688 5.3167834 38
-1.8576677 -0.80881858 5.2849298 38
-1.8633572 -0.80733192 5.2617216 43
-1.8656244 -0.80439413 5.2291965 39
-1.8677515 -0.80143428 5.196692 35
-1.8731076 -0.79989088 5.1735134 31
-2.6200402 -5.0274944 41.817455 20
-2.6879969 -5.0190196 41.612309 103
-2.6505146 -4.792099 39.603168 121
-2.6078579 -4.5709004 37.654037 176
-2.5760376 -4.3820219 35.982738 211
-2.536339 -4.2005653 34.492722 241
-2.5118647 -4.0243125 32.940155 19
-2.4606717 -3.8373301 31.309895 20
-2.4267614 -3.686857 29.986897 254
-2.4002538 -3.5721214 28.961994 21
-2.3738546 -3.4467268 27.857384 21
-2.3657243 -3.3432891 27.021374 254
-2.3453813 -3.2524819 26.204975 153
-2.3187335 -3.1300907 25.139999 20
-2.3050745 -3.0440509 24.372717 22
-2.2863791 -2.9674573 23.685589 22
-2.2690487 -2.8752427 22.949553 22
-2.2518871 -2.7852621 22.162441 22
-2.2395172 -2.7260294 21.624094 22
-2.2259147 -2.6575599 21.01601 23
-2.2105765 -2.5898981 20.418024 24
-2.207752 -2.5317123 19.959305 24
-2.1961298 -2.4809496 19.439659 24
-2.1838639 -2.4250681 19.001795 22
-2.1666901 -2.3648636 18.473639 23
-2.1577628 -2.3233538 18.09428 24
-2.1530323 -2.2801933 17.704395 24
-2.1428478 -2.2329345 17.285131 25
-2.1422431 -2.1838846 16.905437 26
-2.1344137 -2.1490471 16.585701 26
-2.1187611 -2.1010914 16.166937 25
-2.1090505 -2.0605245 15.807357 24
-2.1023562 -2.0241272 15.528136 26
-2.0977807 -1.9909158 15.227789 28
-2.0948393 -1.9548079 14.907138 30
-2.0887475 -1.9224489 14.616888 28
-2.077203 -1.8857821 14.3381 29
-2.067137 -1.8572117 14.037585 27
-2.0586286 -1.825532 13.757557 31
-2.0518148 -1.7962615 13.497274 30
-2.0407813 -1.7591215 13.218201 32
-2.0422831 -1.7387255 13.026738 29
-2.0338178 -1.706293 12.746472 31
-2.0301225 -1.6829642 12.535642 30
-2.0206928 -1.6595891 12.325687 31
-2.0165772 -1.6285785 12.095373 35
-2.0069926 -1.6062987 11.895405 32
-2.0028422 -1.5850972 11.704551 37
-1.9995134 -1.5650871 11.523561 34
-1.9970748 -1.5462787 11.352428 33
-1.9834161 -1.5193524 11.122843 39
-1.9799861 -1.4933159 10.932235 40
-1.9779326 -1.4837722 10.800584 36
-1.9740882 -1.4658117 10.639585 38
-1.97317 -1.4464035 10.49871 41
-1.9697549 -1.4296309 10.347614 37
-1.9618999 -1.4100565 10.177146 38
-1.9609442 -1.3929631 10.02549 42
-1.9534576 -1.377326 9.8851337 44
-1.9492102 -1.3577504 9.7446394 39
-1.9443206 -1.3418679 9.6037025 39
-1.9527085 -1.3354073 9.5307932 42
-1.9487039 -1.3207151 9.3997002 41
-1.9384835 -1.3046699 9.2597313 44
-1.941524 -1.2952706 9.1675711 41
-1.9441489 -1.2823251 9.0759478 42
-1.9358715 -1.2659725 8.9354696 42
-1.9290737 -1.2508992 8.8047667 45
-1.9259658 -1.2384925 8.6934977 41
-1.924518 -1.2273898 8.5919638 40
-1.9236884 -1.2190892 8.5105429 44
-1.9224539 -1.2063613 8.3987417 44
-1.9084902 -1.1881044 8.249156 51
-1.91188 -1.1777532 8.1772861 49
-1.9103918 -1.1677308 8.0857229 46
-1.9122795 -1.1619352 8.023839 45
-1.9007951 -1.1462053 7.8938708 52
-1.9057922 -1.1386889 7.8210125 55
-1.9074073 -1.1312271 7.7489181 53
-1.8985683 -1.1196017 7.6487603 53
-1.899498 -1.1091257 7.5771923 49
-1.900105 -1.1015337 7.50524 49
-1.9003896 -1.093892 7.433332 49
-1.8978772 -1.0847868 7.3518844 59
-1.8974948 -1.0770439 7.2800746 59
-1.8917526 -1.0664123 7.189168 60
-1.8855995 -1.0557208 7.0983357 62
-1.8865578 -1.050779 7.0465355 55
-1.8822898 -1.0387369 6.9657817 54
-1.8828647 -1.032199 6.9037876 55
-1.8752835 -1.0213276 6.8132076 61
-1.8752389 -1.0146973 6.7513161 62
-1.8749181 -1.0080251 6.689467 62
-1.8825077 -1.0071738 6.6664653 59
-1.8681902 -0.993222 6.5570936 60
-1.8727134 -0.98836136 6.5250049 60
-1.8768855 -0.98444015 6.4823284 55
-1.8694794 -0.97315007 6.3914728 54
-1.8734839 -0.97071195 6.3590703 54
-1.8572789 -0.95652944 6.2500935 61
-1.8689822 -0.9568215 6.2360082 60
-1.8691819 -0.95127267 6.1840229 60
-1.8610098 -0.94287908 6.1138544 59
-1.8607248 -0.93725604 6.0619593 59
-1.8683989 -0.93441832 6.0282955 57
-1.867678 -0.92873156 5.9764652 51
-1.8614589 -0.91938192 5.9162998 48
-1.869249 -0.9180513 5.8928423 48
-1.8641373 -0.9092347 5.8215704 48
-1.8655367 -0.90490609 5.7793183 52
-1.8584104 -0.89770699 5.7189884 53
-1.8563333 -0.89183807 5.6674113 51
-1.8602283 -0.88889891 5.6346617 47
-1.8630311 -0.8843413 5.5918379 48
-1.8581626 -0.87849241 5.5410814 45
-1.864735 -0.87696612 5.5177708 41
-1.8616469 -0.8709479 5.4663811 44
-1.8530219 -0.86351562 5.4063897 41
-1.8688421 -0.86433375 5.4115119 39
-1.8522016 -0.85226989 5.3228741 41
-1.859267 -0.85224891 5.3096986 35
-1.8518999 -0.84460211 5.2491918 37
-1.8562217 -0.84131342 5.2159977 41
-1.8496852 -0.83521944 5.1656146 39
-1.8684294 -0.83953172 5.179678 33
-1.8723696 -0.83618253 5.1465163 28
-2.7473874 -5.5067339 43.54731 53
-2.7098649 -5.2694454 41.670826 83
-2.6418085 -4.9745045 39.217594 135
-2.6024015 -4.7507839 37.339127 227
-2.5628562 -4.5408263 35.579971 209
-2.5349038 -4.3408442 33.909435 254
-2.5025918 -4.1894035 32.627075 254
-2.4555748 -4.0012345 31.067293 20
-2.413409 -3.8310761 29.656336 254
-2.3969855 -3.709826 28.631321 20
-2.3724241 -3.5826845 27.56712 21
-2.363029 -3.4741273 26.731819 254
-2.3406477 -3.3769295 25.906189 128
-2.3183808 -3.2699718 25.010822 21
-2.3041306 -3.1661282 24.144526 22
-2.2858584 -3.065783 23.379307 21
-2.267108 -2.9898233 22.732416 23
-2.2579007 -2.9066572 22.034719 23
-2.2397568 -2.8375607 21.447475 23
-2.2263715 -2.7666147 20.849739 23
-2.2145307 -2.6926985 20.292692 24
-2.2001431 -2.6432574 19.8036 24
-2.1909771 -2.5762265 19.245111 24
-2.1825912 -2.5301657 18.846064 24
-2.1680355 -2.4714525 18.408735 24
-2.1574008 -2.410152 17.90008 23
-2.1474419 -2.3673055 17.531023 23
-2.1316566 -2.3120937 17.072781 25
-2.1312697 -2.2688227 16.75326 24
-2.121769 -2.2238569 16.374008 24
-2.1095021 -2.1840811 16.035028 24
-2.1054461 -2.1411593 15.674953 26
-2.0983078 -2.1089585 15.395188 26
-2.0990701 -2.0736399 15.094314 28
-2.0923023 -2.0380425 14.835196 28
-2.0789289 -1.9971272 14.496136 28
-2.0725715 -1.9640989 14.216074 29
-2.0620234 -1.9334919 13.915807 27
-2.058948 -1.9001663 13.675953 30
-2.0457835 -1.863819 13.376718 31
-2.0403655 -1.8354673 13.136375 31
-2.0369313 -1.8096871 12.915725 31
-2.0293543 -1.7810016 12.67562 32
-2.02703 -1.7576568 12.474751 30
-2.0173409 -1.7286468 12.23489 32
-2.0163555 -1.7031493 12.054426 32
-2.0099428 -1.6823238 11.874154 31
-2.0023448 -1.6571016 11.663923 35
-1.9988781 -1.6359023 11.483084 34
-1.9945848 -1.6102413 11.302959 33
-1.9807467 -1.5818945 11.073565 40
-1.9799861 -1.5645555 10.922267 39
-1.9827085 -1.5511318 10.769701 34
-1.9727722 -1.5308186 10.599853 40
-1.9702703 -1.5101703 10.428606 38
-1.9721847 -1.4926192 10.307405 36
-1.9583223 -1.4706213 10.128112 41
-1.955297 -1.4511132 9.9668789 40
-1.957285 -1.4416333 9.8752022 40
-1.9529833 -1.4248756 9.7342949 38
-1.9500089 -1.4094443 9.6031723 40
-1.9484298 -1.3917128 9.4823599 40
-1.9402552 -1.3733017 9.3320065 40
-1.9456552 -1.3647923 9.2495546 41
-1.944505 -1.3519272 9.1380959 41
-1.9428492 -1.3389848 9.0267019 41
-1.9343734 -1.3216513 8.8863688 43
-1.9303604 -1.3100971 8.7855253 44
-1.9271872 -1.2969192 8.6743498 39
-1.9278462 -1.2865602 8.5825558 41
-1.9193269 -1.2703367 8.4522209 45
-1.9190674 -1.2598386 8.3605556 46
-1.9139221 -1.2463655 8.2496719 48
-1.9182161 -1.2370845 8.1670351 46
-1.9066826 -1.2190332 8.047864 46
-1.9123784 -1.21112 7.974967 47
-1.9069126 -1.2004485 7.8843269 53
-1.9047987 -1.1880282 7.7826948 56
-1.9062912 -1.1800596 7.7106686 59
-1.8997115 -1.169207 7.6202135 54
-1.9010512 -1.1566566 7.5384178 48
-1.8937364 -1.1457204 7.4480867 48
-1.9012326 -1.1448396 7.404563 52
-1.8986129 -1.1351353 7.3231988 55
-1.8931222 -1.1238902 7.2323275 57
-1.8869716 -1.1141863 7.1518059 57
-1.8885546 -1.105698 7.0794697 59
-1.8894544 -1.0976801 7.0281334 51
-1.8851014 -1.0877466 6.9470568 51
-1.8751599 -1.0747663 6.8469739 53
-1.8805671 -1.0707201 6.8041625 62
-1.8752046 -1.0622481 6.7335091 58
-1.8801062 -1.0565151 6.680522 63
-1.8741947 -1.0454206 6.6103697 63
-1.8732762 -1.0382363 6.5486641 59
-1.8775638 -1.0340302 6.5059996 60
-1.8708762 -1.0253702 6.4355912 52
-1.8744376 -1.021916 6.3824034 53
-1.8615956 -1.0076874 6.2935381 57
-1.8649536 -1.0033386 6.2510204 60
-1.8676851 -0.99970073 6.1979718 58
-1.864885 -0.98986238 6.1369762 60
-1.8618106 -0.98236161 6.0756507 59
-1.8613794 -0.97635186 6.0238194 56
-1.863658 -0.97184098 5.9814634 55
-1.8627892 -0.96576583 5.9297066 47
-1.8676577 -0.96273285 5.8968296 48
-1.8580985 -0.95362973 5.8270197 47
-1.8565612 -0.94745421 5.7753882 45
-1.8616959 -0.94379199 5.7530642 48
-1.8681369 -0.94055057 5.719574 46
-1.8607332 -0.93287718 5.6593561 45
-1.8667898 -0.93173933 5.6255627 42
-1.8673728 -0.92696947 5.5834804 45
-1.8561624 -0.91761565 5.5140495 42
-1.8552773 -0.91110647 5.4619989 43
-1.8626969 -0.90896034 5.4491329 41
-1.8561026 -0.90303832 5.3881636 40
-1.8589528 -0.8976385 5.3559442 37
-1.8518814 -0.88958436 5.2954297 35
-1.8642318 -0.89090514 5.2908716 34
-1.8600534 -0.88436389 5.2397523 39
-1.8569515 -0.87948334 5.1986861 35
-1.8644043 -0.87748963 5.1748338 32
-1.8764764 -0.87875295 5.1702547 30
-2.785188 -5.9288344 44.945171 72
-2.6775839 -5.3631725 40.417896 99
-2.6309912 -5.1053996 38.362442 144
-2.5959175 -4.8716636 36.606125 197
-2.5606701 -4.6658568 34.95715 225
-2.5245144 -4.4835491 33.395939 254
-2.4902754 -4.32407 32.114655 254
-2.4346161 -4.1154914 30.477167 254
-2.4102769 -3.9510703 29.17518 19
-2.3916111 -3.8125761 28.152525 21
-2.3733802 -3.6925638 27.187933 21
-2.3599195 -3.6015418 26.441704 181
-2.321897 -3.4626718 25.349453 130
-2.3084762 -3.3662522 24.573305 22
-2.2905195 -3.2679105 23.787573 21
-2.282547 -3.1791382 23.14139 22
-2.2693014 -3.0839591 22.384895 23
-2.2507608 -2.9978814 21.698553 23
-2.2292442 -2.9223433 21.092144 23
-2.2186446 -2.8452134 20.535454 23
-2.2043841 -2.7897141 19.965887 23
-2.1974931 -2.7304659 19.487318 24
-2.1883948 -2.6635816 19.009962 24
-2.1747792 -2.6010602 18.512083 26
-2.1612234 -2.5409515 18.034086 25
-2.1490664 -2.4846663 17.585791 24
-2.1434109 -2.4378049 17.20648 23
-2.1347616 -2.3828251 16.818422 23
-2.12432 -2.3341646 16.429604 24
-2.1198428 -2.2936177 16.099863 25
-2.1138482 -2.2528334 15.770265 28
-2.1009843 -2.2061925 15.401577 27
-2.1017997 -2.169035 15.100918 30
-2.0950696 -2.1318476 14.842019 28
-2.0803354 -2.0874479 14.493408 29
-2.0725715 -2.0567369 14.202968 30
-2.0620234 -2.0188415 13.903681 27
-2.0677974 -1.9978344 13.721999 30
-2.0502765 -1.9552717 13.393632 32
-2.046447 -1.9267952 13.163248 32
-2.0384743 -1.895286 12.913427 31
-2.0340519 -1.8630469 12.693769 33
-2.02703 -1.8341675 12.463731 31
-2.0221748 -1.808008 12.253344 35
-2.0198376 -1.7890331 12.09263 32
-2.0132487 -1.7625941 11.882443 32
-2.0056961 -1.7315321 11.67304 36
-2.0022748 -1.7092297 11.492324 33
-1.9945848 -1.6838952 11.29222 34
-1.9894648 -1.6613339 11.111711 39
-1.9817523 -1.6413761 10.920941 39
-1.9839023 -1.6258218 10.789297 33
-1.9740882 -1.6044111 10.619569 39
-1.9695091 -1.5842415 10.458911 40
-1.9697549 -1.5644264 10.328094 35
-1.965651 -1.5455804 10.177319 36
-1.9589605 -1.5251526 10.016925 42
-1.9534576 -1.5060959 9.8663359 41
-1.9570748 -1.4974375 9.7844582 36
-1.954337 -1.477468 9.6539755 38
-1.9490175 -1.4596742 9.5133104 40
-1.947071 -1.4447633 9.3921013 38
-1.9425431 -1.4282765 9.2612877 38
-1.944119 -1.4192919 9.1796579 41
-1.9441489 -1.4040264 9.0579185 42
-1.9365976 -1.3889067 8.9377308 40
-1.9298953 -1.3754637 8.8067026 45
-1.933291 -1.3627155 8.7250786 43
-1.9264898 -1.3488699 8.6147594 40
-1.9236884 -1.3332072 8.4934139 45
-1.9191998 -1.3190945 8.3825216 44
-1.9231212 -1.3109838 8.3102236 46
-1.915464 -1.2952121 8.1898432 48
-1.9132035 -1.2824653 8.1092434 45
-1.9114621 -1.2711648 8.0178585 44
-1.9069932 -1.2582755 7.9169264 50
-1.9090766 -1.2499086 7.8448744 48
-1.9054625 -1.2400745 7.7639894 53
-1.8997717 -1.2269988 7.6632524 56
-1.8989649 -1.2123761 7.5719271 50
-1.9039758 -1.2085502 7.5295343 45
-1.8966261 -1.2026962 7.4383626 48
-1.8946437 -1.1879578 7.347209 55
-1.8989692 -1.1839929 7.3049078 52
-1.9009447 -1.1767756 7.2427907 55
-1.8922735 -1.1649667 7.1527796 57
-1.8913022 -1.1544235 7.0709534 56
-1.8897605 -1.1455047 6.9994445 49
-1.887798 -1.1382194 6.9382329 51
-1.8856636 -1.1265755 6.8672557 51
-1.8832085 -1.1175456 6.795897 58
-1.8777727 -1.1069012 6.7150831 62
-1.877336 -1.099346 6.6533489 63
-1.8739192 -1.0901768 6.5821614 63
-1.8703737 -1.082655 6.5212317 58
-1.8826159 -1.0811709 6.49687 54
-1.8731072 -1.0728784 6.4166427 53
-1.8766021 -1.0665681 6.3638978 53
-1.8661125 -1.053983 6.2740455 57
-1.8693994 -1.049304 6.231565 57
-1.8667822 -1.0414063 6.1702104 60
-1.8610098 -1.0295328 6.0998607 60
-1.8694333 -1.0279626 6.0763569 56
-1.8719091 -1.023176 6.0339923 57
-1.8659817 -1.0152783 5.9735179 52
-1.8614589 -1.0054984 5.9022741 48
-1.8699487 -1.0055529 5.8889513 47
-1.8626267 -0.99582148 5.8185101 46
-1.8580184 -0.98765832 5.757534 52
-1.8661668 -0.98544401 5.7446251 46
-1.8695073 -0.98034495 5.7017779 48
-1.8651319 -0.97601289 5.6506267 46
-1.8596315 -0.96771932 5.589829 44
-1.8664064 -0.96588212 5.5665154 44
-1.8572906 -0.95589858 5.4964647 46
-1.861631 -0.95413667 5.473897 44
-1.8616166 -0.94897401 5.4319639 40
-1.861418 -0.94378436 5.3900642 38
-1.8610353 -0.93856806 5.3481998 38
-1.8506765 -0.92638838 5.2787971 41
-1.8662894 -0.92930871 5.283535 36
-1.8633572 -0.92415756 5.2424641 38
-1.8656244 -0.92049712 5.2100129 34
-1.8697679 -0.91669005 5.1768761 31
-1.8784876 -0.9162761 5.1630054 27
-4.9103847 -23.319199 176.2563 64
-2.7986784 -6.2172475 45.127853 77
-2.7405829 -5.9032264 42.84853 103
-2.6879466 -5.5690293 40.308426 102
-2.6316695 -5.3126597 38.34436 138
-2.6134479 -5.1164761 36.824509 206
-2.5536284 -4.8793893 35.019608 223
-2.5227418 -4.6836176 33.520489 254
-2.4948728 -4.5047288 32.150219 19
-2.4582915 -4.3206725 30.750792 254
-2.4225373 -4.1481075 29.440676 19
-2.3939261 -4.0151429 28.418089 21
-2.3765855 -3.8713877 27.324974 21
-2.3599195 -3.7535851 26.420549 197
-2.3209934 -3.5973198 25.320637 181
-2.3121831 -3.5037529 24.594309 21
-2.2895699 -3.3941686 23.759832 22
-2.283694 -3.3007901 23.043037 22
-2.2626264 -3.2156277 22.387344 23
-2.253562 -3.1383731 21.790112 23
-2.2396564 -3.0578408 21.173418 23
-2.2154524 -2.9668877 20.488089 24
-2.2043841 -2.8968687 19.950621 23
-2.203042 -2.8422117 19.521551 24
-2.1872621 -2.771455 18.984495 25
-2.1747792 -2.7075057 18.496815 25
-2.1612234 -2.6446488 18.019171 25
-2.1550727 -2.5930128 17.620316 25
-2.1416276 -2.5426581 17.232262 26
-2.1372554 -2.4824286 16.824068 24
-2.1268177 -2.4389169 16.485397 24
-2.1136062 -2.3863115 16.087206 24
-2.1090505 -2.3450904 15.767653 27
-2.0963519 -2.2963321 15.399228 26
-2.0964272 -2.2694073 15.178763 28
-2.1031194 -2.2376783 14.9274 28
-2.0901504 -2.1926439 14.588818 30
-2.0800467 -2.1578145 14.319712 29
-2.0786934 -2.1271086 14.079296 28
-2.0620873 -2.0874612 13.781089 30
-2.0495653 -2.0474856 13.482255 30
-2.0462303 -2.0177164 13.251995 32
-2.0403066 -1.9862934 13.012077 30
-2.0360787 -1.9573749 12.822635 32
-2.0281572 -1.925723 12.582934 33
-2.0207145 -1.9000101 12.383165 31
-2.0172341 -1.8740383 12.182727 34
-2.0174844 -1.8478079 11.981631 31
-2.0091777 -1.8231796 11.791913 35
-2.0040886 -1.7936532 11.571554 36
-1.9951253 -1.7656059 11.361822 32
-1.9895129 -1.7451122 11.201631 36
-1.9918598 -1.7242706 11.040013 40
-1.9884484 -1.7065969 10.899436 34
-1.9778987 -1.6795529 10.699865 36
-1.9723324 -1.653784 10.509391 39
-1.9743111 -1.6419055 10.407912 38
-1.9647424 -1.6207457 10.248247 36
-1.9623976 -1.5992403 10.087192 41
-1.9591085 -1.5802023 9.9671087 38
-1.9553272 -1.5617501 9.826354 39
-1.9529833 -1.5479491 9.7154837 38
-1.9480393 -1.5293133 9.5748863 38
-1.956399 -1.5214272 9.5021133 38
-1.9519466 -1.5009508 9.3512545 40
-1.9497299 -1.4883869 9.2503061 38
-1.9465648 -1.4725173 9.1293526 39
-1.9414281 -1.4582455 9.0188675 40
-1.9406879 -1.4420958 8.8973303 43
-1.9337668 -1.4244167 8.7669649 45
-1.9305506 -1.4097904 8.6559725 41
-1.9278462 -1.3983542 8.565052 41
-1.9259 -1.3851602 8.4638252 45
-1.9146405 -1.3655831 8.324172 45
-1.9183939 -1.3569856 8.2519541 47
-1.91188 -1.3437039 8.1516609 44
-1.9135247 -1.3317031 8.0595961 45
-1.9153885 -1.3246505 7.9978423 45
-1.9084975 -1.3094689 7.8874159 47
-1.9057922 -1.2974068 7.7962551 49
-1.9097737 -1.2871139 7.7344041 54
-1.8991437 -1.2701809 7.6146173 55
-1.9000233 -1.2640662 7.5423107 49
-1.8908463 -1.2485552 7.4322753 48
-1.9008148 -1.2458506 7.398808 51
-1.8904539 -1.2319541 7.2991834 55
-1.8978167 -1.225827 7.2459469 55
-1.8844489 -1.2084594 7.126667 55
-1.8906819 -1.2057228 7.0940228 56
-1.8815993 -1.1914767 6.9939661 49
-1.8901619 -1.1885492 6.9606566 52
-1.8829949 -1.1740743 6.8600273 53
-1.8779331 -1.1629211 6.7792244 59
-1.8698999 -1.1518379 6.6991973 61
-1.8801868 -1.1504004 6.6755061 60
-1.8822849 -1.1414857 6.6237764 60
-1.8761636 -1.1319426 6.5533819 61
-1.8775638 -1.1237495 6.4911046 57
-1.8708762 -1.1165806 6.4203949 53
-1.8691771 -1.108404 6.358932 53
-1.87281 -1.1034918 6.3164301 55
-1.8621278 -1.0902779 6.2267065 58
-1.8652774 -1.0852945 6.1842847 61
-1.8625009 -1.0769632 6.1230168 59
-1.8594502 -1.068593 6.0618029 60
-1.8677806 -1.0668417 6.0383229 59
-1.8619417 -1.058529 5.9778919 55
-1.8581805 -1.0500536 5.916811 50
-1.8660504 -1.0482274 5.893384 48
-1.8678263 -1.0430343 5.8511715 49
-1.8543166 -1.0294302 5.762064 47
-1.8616959 -1.0275271 5.7386999 49
-1.859786 -1.0205618 5.6872268 49
-1.8607332 -1.0152479 5.6451612 46
-1.8583876 -1.0082208 5.5937719 46
-1.8661571 -1.008042 5.5805202 45
-1.860314 -0.99926966 5.5198545 42
-1.8637079 -0.99554026 5.4872479 40
-1.8584591 -0.98852545 5.4367127 38
-1.8615403 -0.98474771 5.4041595 37
-1.8612497 -0.97924769 5.3623152 38
-1.8607749 -0.97372115 5.3205061 35
-1.8601161 -0.96816832 5.2787323 37
-1.8625703 -0.96429616 5.2462811 37
-1.8562217 -0.95711362 5.1959963 35
-1.8670582 -0.95648718 5.1814408 32
-1.8737998 -0.95610774 5.168282 30
-4.843019 -24.269516 176.16011 38
-2.7648489 -6.241992 43.457027 95
-2.723187 -5.946198 41.285191 112
-2.6485226 -5.6003151 38.778275 120
-2.6089535 -5.3483796 36.933674 209
-2.5558321 -5.1259294 35.207123 220
-2.5297272 -4.9152956 33.760395 239
-2.5002367 -4.699677 32.192837 20
-2.4551346 -4.4917164 30.685972 20
-2.4274101 -4.3260775 29.475496 19
-2.4015923 -4.1726112 28.354177 21
-2.3711267 -4.0373669 27.362293 21
-2.3590386 -3.904047 26.388666 246
-2.3282239 -3.7643073 25.3769 213
-2.3158901 -3.6604538 24.61174 22
-2.2971668 -3.5516381 23.817324 22
-2.2784324 -3.4526291 23.15337 22
-2.2678354 -3.365083 22.507109 23
-2.2562788 -3.2800171 21.880774 23
-2.2387512 -3.2020173 21.30471 23
-2.2276587 -3.1208942 20.657143 23
-2.2115874 -3.0507479 20.140554 23
-2.2011375 -2.9801004 19.623327 24
-2.1934512 -2.9059629 19.085835 24
-2.1742158 -2.8391886 18.599339 24
-2.1624746 -2.7749438 18.131859 24
-2.1617041 -2.7201121 17.773579 25
-2.1416063 -2.6585507 17.326893 25
-2.1341257 -2.59793 16.888596 25
-2.1291356 -2.5584161 16.589384 26
-2.1227889 -2.5032833 16.190668 25
-2.1133993 -2.4540675 15.832142 24
-2.0976777 -2.4062431 15.484375 24
-2.0905414 -2.3626232 15.165347 25
-2.0830152 -2.3265433 14.896195 25
-2.0815246 -2.2916796 14.636156 27
-2.0773289 -2.2488315 14.326548 31
-2.0749562 -2.2213964 14.116428 30
-2.0684197 -2.184437 13.846976 29
-2.0561953 -2.1426537 13.548358 30
-2.0464585 -2.1100733 13.309264 32
-2.0413704 -2.0724244 13.039458 30
-2.0357449 -2.0457151 12.839643 32
-2.0264146 -2.0109529 12.590385 33
-2.0190871 -1.9791925 12.391537 30
-2.0188494 -1.950315 12.180743 35
-2.0161104 -1.9245404 11.99031 31
-2.0091777 -1.8954991 11.780504 33
-2.0046475 -1.8694524 11.590282 37
-1.9982201 -1.8465413 11.420376 32
-1.992064 -1.8202369 11.230356 35
-1.9807467 -1.7981578 11.04051 40
-1.9859874 -1.7793264 10.898543 37
-1.9862938 -1.7605186 10.757399 35
-1.9763952 -1.7369585 10.587961 37
-1.9757839 -1.7146316 10.426831 38
-1.9681904 -1.6940385 10.276987 36
-1.9639605 -1.6693356 10.127126 41
-1.9648257 -1.6499491 9.985651 40
-1.9534358 -1.6275045 9.8263836 41
-1.956756 -1.6111321 9.7044458 41
-1.9537309 -1.5931897 9.5736446 39
-1.9484298 -1.5768933 9.4533291 39
-1.9483143 -1.5620065 9.3420076 41
-1.9451584 -1.5420653 9.2010489 37
-1.9403853 -1.52714 9.0906076 41
-1.9324373 -1.510576 8.9499855 39
-1.9322684 -1.4969558 8.848608 45
-1.9337668 -1.4848998 8.7569237 44
-1.9305506 -1.4695077 8.6460342 41
-1.9235092 -1.4541655 8.5359488 41
-1.921518 -1.4402673 8.4348269 44
-1.9124271 -1.421366 8.3049345 46
-1.9116863 -1.4089717 8.2135715 49
-1.9173065 -1.398342 8.1516056 47
-1.9158055 -1.3858681 8.060338 44
-1.9153885 -1.3767633 7.989037 45
-1.9115635 -1.3607374 7.8779893 50
-1.903448 -1.3465477 7.7780523 49
-1.9074073 -1.3388116 7.7157617 53
-1.9015326 -1.3243772 7.6152349 54
-1.9000233 -1.3160995 7.5334053 50
-1.8981469 -1.3048478 7.4521413 48
-1.8983591 -1.2952183 7.3804841 56
-1.8858582 -1.2771494 7.2611656 57
-1.8928157 -1.2724535 7.2182407 55
-1.8844489 -1.2576249 7.118155 56
-1.8908964 -1.2528503 7.0752931 59
-1.8894544 -1.2429782 7.0038967 51
-1.8851014 -1.2313679 6.9230433 53
-1.8751599 -1.216318 6.8232508 53
-1.883201 -1.2130826 6.7900281 57
-1.8804747 -1.2030252 6.7188501 56
-1.8774279 -1.1929221 6.6477289 59
-1.8767613 -1.1844779 6.586143 58
-1.8705574 -1.174414 6.5158401 57
-1.8775638 -1.1735021 6.482295 55
-1.8733753 -1.1632041 6.4113827 55
-1.8688672 -1.1528616 6.3405318 53
-1.8724616 -1.1476368 6.2980723 55
-1.8702108 -1.1389366 6.2367644 57
-1.8624296 -1.1286008 6.1667833 60
-1.864885 -1.12142 6.114305 60
-1.8652338 -1.1138653 6.0731134 59
-1.8648667 -1.1067687 6.0214062 57
-1.8613337 -1.1001929 5.9599171 55
-1.8552264 -1.0913998 5.8996086 52
-1.8667274 -1.0930116 5.8956804 49
-1.8655471 -1.0857711 5.84412 46
-1.8573365 -1.073132 5.7637825 49
-1.8564217 -1.0676974 5.7223969 54
-1.8606304 -1.0638546 5.6896987 52
-1.8585334 -1.0564849 5.6383147 49
-1.8531036 -1.0473293 5.5776348 45
-1.8630311 -1.0469203 5.5636921 44
-1.8634617 -1.0412215 5.5217543 39
-1.8668774 -1.039362 5.48877 36
-1.8605782 -1.0300622 5.4282703 34
-1.8604337 -1.0242652 5.3864427 39
-1.860105 -1.018442 5.3446503 40
-1.8510156 -1.0091791 5.2850165 36
-1.8588958 -1.0067173 5.2611718 38
-1.8559772 -1.0009502 5.2201867 38
-1.8682026 -1.0021435 5.2155943 34
-1.8637182 -0.99441773 5.1646967 33
-1.8758153 -0.9955833 5.1600904 27
-4.3032374 -25.183357 176.28835 12
-4.6431251 -25.24124 176.2108 18
-2.7746353 -6.5954909 44.113457 86
-2.7227414 -6.2563872 41.735939 114
-2.6731472 -5.9451928 39.556503 118
-2.6236341 -5.7005324 37.731724 158
-2.5863752 -5.421134 35.789467 218
-2.5438626 -5.1779008 34.095375 254
-2.508091 -4.9750428 32.759598 254
-2.4696424 -4.7419729 31.144415 254
-2.4347677 -4.5741963 29.96526 19
-2.4073267 -4.4069228 28.795429 21
-2.3837726 -4.2554193 27.734358 21
-2.3657327 -4.1213198 26.791832 21
-2.3451095 -3.9895697 25.869329 241
-2.315999 -3.8664157 25.007099 21
-2.3032057 -3.7592745 24.252539 22
-2.2921929 -3.6453364 23.458044 23
-2.2769382 -3.5586693 22.8426 23
-2.2639239 -3.4567695 22.188519 23
-2.2509534 -3.3677611 21.562815 23
-2.2287941 -3.2850835 20.875898 24
-2.2184691 -3.1992731 20.330593 23
-2.2022982 -3.1274025 19.824364 24
-2.1969404 -3.0517988 19.297035 24
-2.1855273 -2.9916379 18.869724 24
-2.172673 -2.9216828 18.382896 25
-2.1563852 -2.8498182 17.88648 25
-2.1522622 -2.7963891 17.507929 25
-2.1434109 -2.7475266 17.159748 25
-2.1322677 -2.6888485 16.752119 26
-2.1281295 -2.6346171 16.414246 25
-2.1234863 -2.5862873 16.034536 26
-2.1059558 -2.5332372 15.667411 26
-2.0996461 -2.4818394 15.349529 25
-2.0877829 -2.4314694 15.001491 26
-2.0784643 -2.3968809 14.681122 24
-2.0494697 -2.3308244 14.27652 254
-2.0599399 -2.3099539 14.114646 26
-2.0566354 -2.2745485 13.864944 25
-2.0639505 -2.2518067 13.693442 28
-2.0503247 -2.2129867 13.425218 31
-2.0413451 -2.1688888 13.126326 32
-2.033469 -2.1327863 12.877124 32
-2.0304441 -2.1079621 12.697035 33
-2.0332921 -2.0795121 12.49601 31
-2.0190892 -2.0446818 12.257677 35
-2.0151496 -2.0160673 12.057643 33
-2.0152383 -1.9922048 11.886898 32
-2.0011704 -1.955155 11.638453 35
-1.9995134 -1.9310285 11.467915 35
-1.9943944 -1.9128866 11.307203 35
-1.9886357 -1.8817478 11.097263 41
-1.9828045 -1.8555433 10.917323 39
-1.9737515 -1.8309951 10.747938 36
